# 3D point list with one line of data per point:
#   POINT3D_ID, X, Y, Z, R, G, B, ERROR, TRACK[] as (IMAGE_ID, POINT2D_IDX)
# Number of points: 452, mean track length: 5.73612
15738 0.431706 2.50604 0.179811 21 11 0 0.2565 46 485 93 580 146 514
2755 0.732996 2.66449 -0.307584 85 70 55 0.648017 2 1077 99 1635 126 884
15737 -0.397126 3.25439 -0.0130666 60 43 23 0.121119 46 477 93 613 146 511
2754 0.268355 2.50473 -0.521502 108 91 75 0.275269 2 1058 99 1617 52 1177
15736 0.305696 2.53869 0.226335 46 29 6 0.16985 33 179 93 601 146 507
2753 0.239806 2.49522 -0.525124 44 33 23 0.336418 2 1053 99 1615 52 1176
15735 0.431002 2.49235 0.152338 20 11 0 0.206774 46 457 93 1173 146 496
2752 0.0194003 2.48538 -0.49812 45 35 25 0.211543 2 1001 99 1560 52 1133 98 1697
15734 0.696735 2.14315 0.333087 40 24 9 0.867624 46 453 93 1169 146 495
2751 0.0204915 2.48628 -0.496274 45 35 25 0.224404 2 1002 99 1559 52 1132
15733 0.766036 2.04167 0.304943 73 55 31 0.672895 93 568 146 494
2750 -0.00149468 2.49343 -0.493848 85 69 53 0.408469 2 1000 99 1550 52 1303 100 913
15732 0.743785 1.84208 0.335169 67 41 14 0.341651 93 1140 146 473
2749 -0.0370213 2.49696 -0.468831 83 67 52 0.459179 2 992 99 1548 52 1290 3 402
2748 -0.046488 2.48927 -0.460351 40 31 22 0.541222 2 986 99 1531 52 1118 74 776 100 903 3 401
15730 -0.627078 1.72854 0.0480434 25 17 4 0.357578 46 287 146 299
2747 -0.0728946 2.49267 -0.440934 38 28 18 0.400644 2 980 99 1528 52 1117 100 900 3 391
15729 -0.897433 3.6405 0.0680071 163 130 96 1.03698 46 1864 93 2128 146 1836 70 1103
2746 -0.0728946 2.49267 -0.440934 38 28 18 0.400644 2 979 99 1527 52 1116 100 901 3 392
2745 -0.107895 2.47656 -0.403548 34 25 16 0.316523 2 970 99 1518 52 1098
2744 -0.107895 2.47656 -0.403548 34 25 16 0.316523 2 971 99 1517 52 1097
2743 -0.120474 2.51036 -0.385797 66 54 41 0.69401 2 969 99 1513 52 1272
2742 -0.125141 2.50058 -0.378356 24 17 9 0.357544 2 968 99 1512 52 1099
2741 -0.125141 2.50058 -0.378356 24 17 9 0.357544 2 967 99 1511 52 1100
2740 -0.152303 2.52127 -0.352866 18 13 7 0.208696 2 966 99 1506 52 1267 74 771
2739 -0.954139 2.3457 -0.494358 81 60 33 0.50753 2 930 99 1482 52 1045 100 1676
2738 -0.999544 2.3607 -0.423214 51 35 12 0.574025 2 921 99 1480 52 1807
2737 -0.996564 2.35259 -0.417972 87 64 33 0.751126 2 920 99 1479 52 1035 74 731 100 1669 3 1145
2734 0.850911 2.60211 -0.372808 38 29 20 0.31923 98 1967 99 1469 52 1198
2733 0.850911 2.60211 -0.372808 38 29 20 0.31923 98 1966 99 1468 52 1199
15715 -0.0280888 2.6948 0.197112 25 12 3 0.897918 93 1878 46 1602 146 1569
2732 0.822905 2.61324 -0.363751 91 75 59 0.947628 12 742 99 1467 3 252
15714 -0.216046 2.21093 0.14459 143 101 61 0.419379 46 1592 93 1947 146 1555
2731 0.320592 2.48919 -0.509308 73 55 41 0.288493 2 1059 99 1448 52 1179
15713 0.377474 1.15523 -0.00288543 53 35 11 1.57388 32 2013 21 1006 23 1075
2730 0.225081 2.41205 -0.52797 57 45 35 0.481689 2 884 99 1434 52 989
2729 0.225081 2.41205 -0.52797 57 45 35 0.481689 2 883 99 1433 52 988
2728 0.150506 2.45933 -0.525623 54 40 29 0.3 98 1382 99 1427 52 1156 126 875
2727 0.0363726 2.45613 -0.499293 91 74 59 0.389088 98 1336 99 1394 52 1125
2726 0.0183248 2.45664 -0.493812 87 72 56 0.275036 2 989 99 1393 52 1124 100 766
15708 -0.872326 2.15229 0.0649686 73 51 21 1.26141 93 1744 33 857 146 1319 21 1010
2725 0.0754717 2.42215 -0.513093 45 33 21 0.284856 2 859 99 1392 52 970 126 857 100 772
2724 0.0754717 2.42215 -0.513093 45 33 21 0.284856 2 858 99 1391 52 969 126 856 100 771
2723 -0.00402833 2.43717 -0.482836 87 70 55 0.418666 2 844 99 1378 52 1120 126 852
2722 -0.0279643 2.44959 -0.468172 36 26 16 0.386183 2 839 99 1376 52 1113 100 757 3 395
2721 0.00971443 2.40845 -0.48252 47 34 26 0.550933 2 836 99 1368 126 841 3 289
2720 0.00830103 2.40787 -0.484797 47 34 26 0.340549 2 835 99 1367 126 842
2719 -0.0556173 2.44274 -0.450202 81 65 47 0.261086 2 824 99 1363 52 1106
15701 0.368705 1.07124 -0.0096234 21 16 9 1.01053 32 1186 36 426 21 791
2718 -0.0752081 2.44096 -0.43867 79 63 46 0.378598 2 819 99 1360 52 1103 126 821 100 756 3 384
15700 1.23804 2.21219 0.308063 89 65 36 1.76543 8 1288 105 2002 57 1882 80 1443 9 1528 81 1452 33 790 46 973 93 1502 106 1569 45 691
2717 -0.0556331 2.42932 -0.453673 38 28 18 0.435008 2 823 99 1357 52 1110 126 829 100 755 3 275
15699 -7.51982 5.95344 -13.752 136 87 31 0.686276 93 2138 118 1703 33 1246 146 1843
2716 -0.0553996 2.42946 -0.453611 38 28 18 0.441797 2 822 99 1356 52 1109 74 699 126 828 100 754 3 274
15698 -0.866338 4.06165 0.230845 77 22 19 1.19614 93 2135 33 1243 146 1840 21 1376
2715 -0.0646355 2.43179 -0.445089 34 23 12 0.549965 2 821 99 1355 52 1105 126 827 100 753 3 386
2714 -0.0646355 2.43179 -0.445089 34 23 12 0.549965 2 820 99 1354 52 1104 126 826 100 752 3 385
2713 -0.0468665 2.40426 -0.452953 87 70 54 0.44202 2 817 99 1353 52 940 74 696 126 825 100 746 3 285
15695 -1.15767 4.16845 0.486341 144 114 78 1.49659 93 2118 33 1227 146 1822
2712 -0.0694304 2.4269 -0.429992 83 67 51 0.489246 2 814 99 1349 74 694 126 1276 100 1468 3 273
15694 0.891798 2.33607 0.349308 121 83 44 1.90913 46 1855 33 1226 146 1821
2711 -0.124656 2.44616 -0.362135 31 22 14 0.61166 2 805 99 1331 52 1081
2710 -0.142449 2.45089 -0.366857 59 47 35 0.509633 2 810 99 1330 52 1083
15692 -9.9846 5.63517 -14.3584 136 87 28 0.723929 46 1843 118 1677 33 1221
2709 -0.131459 2.41966 -0.378087 36 27 18 0.197656 2 802 99 1327 52 931 152 1345 74 687
15691 -8.37997 5.00332 -14.4657 50 29 8 0.798727 46 1832 93 2087 118 1660 33 1219 146 1797
2708 -0.147195 2.4418 -0.359227 21 16 8 0.30816 2 804 99 1320 52 1079 74 688
15690 -1.57908 4.39664 0.598431 136 84 13 0.00549196 46 1857 33 1212
2707 -0.543456 2.31796 -0.644166 107 90 72 0.828441 124 2126 99 1309 135 348
15689 -0.659537 4.01606 0.177242 27 14 8 1.82566 46 1825 93 2079 33 1200 146 1789 21 1316 119 1348 47 1013
2706 -0.819154 2.25531 -0.60809 33 20 10 0.338278 152 1054 99 1295 52 873 100 1536 3 1022 75 378 127 750 101 575
15688 -0.588827 2.58391 0.066948 37 20 4 1.65657 93 2073 33 1192 46 1821
2705 -0.873809 2.26657 -0.577603 82 64 41 0.452931 2 726 99 1291 52 868 100 844 3 476 101 293
15687 -6.91226 6.76818 -12.1638 101 56 0 0.739741 93 2064 118 1632 33 1185 146 1802 21 1326 70 1059
2704 -0.929293 2.26425 -0.526334 45 32 14 0.366752 2 712 99 1284 52 854 3 465 100 836 101 283
15686 -1.04269 4.05792 0.276642 28 18 8 1.41135 93 2050 33 1175 146 1762 21 1286 70 1013
2703 -0.961845 2.26953 -0.48538 40 29 11 0.449783 2 697 99 1279 52 849 74 597
15685 1.06548 2.34966 0.375531 115 81 46 0.558127 46 1755 93 2020 33 1153 146 1724
2702 -0.961733 2.26943 -0.485132 40 29 11 0.445247 2 696 99 1278 52 848 74 596 4 244
15684 -0.142362 3.42202 0.0788773 25 18 8 1.50416 46 1753 93 2049 33 1150
2701 -0.983256 2.32776 -0.449342 82 61 33 0.487288 2 923 99 1277 52 1033 74 735 100 1603 3 1075 4 329
15683 -0.693945 3.6297 -0.0415394 24 15 8 0.743702 46 1793 93 2048 33 1147 146 1757
2700 -0.983256 2.32776 -0.449342 82 61 33 0.487288 2 924 99 1276 52 1032 74 734 100 1604 3 1076 4 328
15682 -7.75774 10.1185 -15.1287 30 20 8 1.5089 93 2001 118 1475 33 1135 46 1651 146 1690 21 1204 69 1380
2699 -0.97779 2.31509 -0.463074 47 32 11 0.662067 2 704 99 1273 52 1038 74 733 3 1085 100 1602 101 693 4 326
15681 -8.24775 5.15735 -13.3582 62 41 14 1.74087 46 1719 33 1123 93 1973 146 1676
2698 -0.979825 2.29427 -0.45609 45 30 11 0.458843 2 700 99 1270 52 851 74 591 100 1595 4 249 101 634
15680 -36.9791 8.79515 -32.492 12 7 1 1.24435 69 1504 33 1116
2697 -0.979886 2.29439 -0.45608 45 30 11 0.468621 2 699 99 1269 52 850 74 590 100 1594 3 1078 4 248 101 633
15677 1.35356 2.15154 0.0321542 115 91 67 1.00513 46 1512 33 1060 146 1577
2694 0.684431 2.5494 -0.258085 33 23 13 0.552673 2 662 99 1226 52 1002 74 718 153 1084
15676 -17.7054 7.19957 -35.9257 27 13 0 1.96909 69 1437 33 999 146 1489
2693 0.669389 2.55927 -0.208109 45 37 27 0.562198 2 654 99 1221 52 1000
15675 0.361606 3.1699 0.162028 48 32 16 0.655202 46 1527 93 1773 33 981 146 1480 21 853
2692 0.292309 2.42184 -0.511661 115 96 79 0.318917 2 890 99 1211 52 986
15674 -0.441335 3.84221 -0.0257542 50 34 19 0.965895 46 1521 33 978 146 1469 21 838
2691 0.309047 2.41253 -0.501301 62 50 38 0.239546 2 647 99 1209 52 994
15672 -9.29865 4.69613 -14.3592 59 37 13 0.592213 46 1437 93 1686 118 1256 33 914
2689 -0.0512991 2.36168 -0.450645 84 67 51 0.198905 152 1129 99 1147 52 736 126 676 100 616
15670 1.35457 2.18702 0.100626 76 15 5 0.68174 93 1666 33 890 146 1363 46 1396 21 874 119 1082 94 1500
2687 -0.146881 2.4218 -0.358282 25 19 11 0.252365 152 1343 99 1138 52 928
15669 1.36102 2.2057 0.0698704 105 81 57 0.435648 93 1665 33 889 146 1362
2686 -0.166311 2.40463 -0.325687 17 12 6 0.264645 152 1116 99 1130 52 919
15668 -0.72905 4.01545 -0.0245775 73 52 29 0.773784 93 1661 33 878 146 1470
2685 -0.166311 2.40463 -0.325687 17 12 6 0.264645 152 1117 99 1129 52 920
15667 -0.72905 4.01545 -0.0245775 73 52 29 0.773784 93 1660 33 877 146 1471
2684 -0.158729 2.37868 -0.349449 40 31 22 0.476944 2 594 99 1126 74 519
15666 -7.52724 10.7097 -17.4934 43 30 13 1.28621 46 1098 116 1478 118 959 33 854
2683 -0.458622 2.27074 -0.614857 118 99 82 0.899462 151 1037 99 1121 109 1521 163 1300
2682 -0.693279 2.19324 -0.648432 99 82 63 0.539059 152 765 99 1076 52 673 125 1685
2681 -0.767733 2.21639 -0.62907 92 75 57 0.454943 152 1059 99 1068 100 690 153 616
15663 0.183641 1.01722 0.0918476 101 71 35 0.236504 9 823 33 836
2680 -0.854221 2.23529 -0.587285 46 33 16 0.381254 2 724 99 1056 52 864 74 622 100 845 3 472 153 610 101 265
15662 1.19239 2.23265 0.3326 77 13 3 1.01863 46 981 93 1504 33 797 146 1237
2679 -0.855759 2.22195 -0.587452 82 62 38 0.501181 2 533 99 1055 52 659 125 1033 74 621 100 681 3 330 53 426 127 357 101 264
15661 1.25061 2.20705 0.299459 99 72 42 0.661245 46 972 93 1501 33 794 146 988
2678 -0.933073 2.22166 -0.520229 32 23 8 0.393929 2 524 99 1047 52 652 125 1019 74 452 100 1440 3 996 153 1105 53 411 75 350 127 724 101 545
15660 1.2585 2.224 0.282198 69 9 0 0.532039 46 977 33 792
2677 -0.959537 2.25774 -0.491494 82 62 34 0.500028 2 695 99 1043 52 846 74 595 3 994
15659 1.22807 2.22504 0.303493 100 71 42 0.742243 46 974 93 1503 33 791 45 692 69 509
2676 -0.947273 2.22287 -0.504786 29 21 2 0.686626 2 523 99 1039 52 650 125 1018 152 753 74 450 3 457 100 676 153 1101 53 410 127 402 101 539 4 173
2675 -0.960127 2.2305 -0.498521 84 63 34 0.373697 2 522 99 1038 153 602
15657 -0.630699 4.03852 0.31715 38 16 7 0.633775 46 1225 93 1510 33 777 146 1229 21 843 119 618 94 893 22 854 70 543 47 501
2674 -0.960127 2.2305 -0.498521 84 63 34 0.373697 2 521 99 1037 153 603
15656 1.35921 2.17079 0.0227827 116 90 67 0.172735 93 1211 33 770
2673 -0.961685 2.2262 -0.482389 33 23 7 0.500503 2 520 99 1035 52 646 125 730 74 449 100 675 3 452 153 601 53 407 127 397 101 259
15655 -0.445896 3.43335 0.0348433 67 49 29 0.508354 93 1658 33 753 146 1219
2672 -1.00325 2.27729 -0.407288 56 38 18 0.403947 2 517 99 1032 52 836 74 574
15654 -0.457216 2.76399 0.0677961 40 23 5 0.823252 46 1194 33 742 146 1185
2671 -1.00325 2.27729 -0.407288 56 38 18 0.403947 2 518 99 1031 52 835 74 575
15653 -0.716198 2.54491 0.100579 0 0 0 0.78552 92 629 117 433 145 581 159 1443 31 709 8 908 57 1465 80 748 78 1328 79 1163 116 1078 19 341 91 1393 144 1167
2670 -1.01915 2.24955 -0.359558 96 71 40 0.570114 2 512 99 1015 52 1677 74 441 100 1923 3 1427 153 1041 27 224 75 619 4 908 76 367 101 848 128 786 102 1400 54 959
15652 0.426804 3.30721 0.107019 20 13 2 0.898431 93 1251 33 623 146 1005
2669 0.940337 2.4333 -0.381814 109 92 76 0.426327 2 494 99 999 52 813
15650 -0.643697 4.02606 0.367466 70 29 28 0.788858 46 1235 93 1511 33 610 21 844 70 687 119 934
2667 0.771489 2.45401 -0.325889 44 34 22 0.29422 152 1252 99 975 52 794 125 1170 126 566
15649 0.351904 3.22583 0.158095 28 19 4 0.387262 93 1255 33 607 46 623 146 605
2666 0.755848 2.4683 -0.313426 88 72 57 0.158005 73 1053 99 973 52 790
15648 1.21751 2.20168 0.318095 71 10 0 0.502956 46 606 93 1229 33 600 146 989
2665 0.755848 2.4683 -0.313426 88 72 57 0.158005 73 1052 99 972 52 791
15647 1.27818 2.22044 0.261094 70 8 3 0.616787 46 976 33 599 119 314 94 925
2664 0.793471 2.43007 -0.3378 53 43 31 0.408711 73 1047 99 969 52 797 125 1163 126 562 100 529 154 497
15646 1.36627 2.25622 -0.0115031 117 94 68 0.616325 46 568 33 590 119 698 94 1370
2663 0.723657 2.42897 -0.282356 89 72 56 0.266001 2 464 99 948 52 784 126 549
15645 1.35785 2.28187 -0.0493225 75 57 35 0.331336 93 699 33 589 146 975
2662 0.710787 2.43297 -0.260676 87 71 56 0.272518 152 1195 99 944 125 932
15644 0.0483887 3.35026 0.141457 92 71 44 0.628202 46 1215 33 581 93 1663 146 1357
2661 0.665333 2.47058 -0.211924 40 30 20 0.160853 152 1198 99 939 125 1116
15643 1.36685 2.20358 -0.00121587 119 93 71 1.4319 93 698 33 575 94 1364
2660 0.665333 2.47058 -0.211924 40 30 20 0.160853 152 1199 99 938 125 1117
15642 -0.47428 2.95308 0.0739988 74 49 20 0.438427 93 1469 33 547 146 1197
2659 0.152297 2.27834 -0.515645 60 44 29 0.245787 73 606 99 911 125 835
15641 0.439407 2.24916 0.141175 125 88 52 0.671082 46 418 33 531 21 143
2658 0.00144087 2.30732 -0.47996 43 30 19 0.227229 152 1133 99 880 125 1081 100 573
15639 -0.666877 2.5082 0.113205 155 112 69 0.544753 46 866 93 1444 33 515 146 1156 21 101
2656 -0.0745703 2.3041 -0.429874 85 68 52 0.198032 152 799 99 865 52 730 125 759 126 598 100 549
15638 0.357877 1.1497 0.0131674 103 71 32 2.12197 8 50 11 40 32 1711 33 490
2655 -0.105097 2.29583 -0.405324 46 35 22 0.510658 152 789 99 862 52 531 125 750 126 593 100 539
15637 0.216184 1.1703 0.216662 54 33 5 2.16749 21 394 30 69 34 177
2654 -0.142805 2.31953 -0.367293 36 23 14 0.349721 2 372 99 860 52 722 125 742 126 588
2653 -0.187049 2.34638 -0.288364 32 11 9 0.0640146 2 365 99 857
15635 0.302893 1.00074 -0.145444 0 0 0 0.89326 25 522 37 450 35 247 24 483 34 147
2652 -0.168128 2.30577 -0.324773 40 21 17 0.277328 152 779 99 856 52 523 125 733
2650 -0.528426 2.20538 -0.640391 111 94 76 0.171039 152 770 99 846
2649 -0.627603 2.19008 -0.648058 110 91 73 0.336814 124 707 99 840 109 424 163 340 125 1694 74 483
15631 0.311465 3.37138 0.15949 63 47 31 0.302008 46 639 93 770 33 395
2648 -1.00788 2.23444 -0.396334 46 31 13 0.532129 2 513 99 838 52 639 74 443 153 527
15630 0.334382 3.32792 0.14482 28 19 6 0.378328 46 1004 93 1256 33 394
2647 -1.01905 2.2362 -0.363201 49 34 10 0.562965 2 511 99 835 52 1676 74 439 153 1040
15628 0.423716 3.28613 0.102038 59 42 26 0.360235 46 634 93 766 33 390
2645 0.980007 2.3829 -0.365344 57 48 33 0.079393 2 358 99 830
15627 -0.5409 4.01985 0.222782 100 74 41 0.535028 20 602 33 374 70 325
2644 0.747289 2.33466 -0.308462 92 75 59 0.706649 151 2055 99 802 126 480
15626 0.375571 3.22003 0.146938 24 14 2 0.298048 46 622 93 1254 33 366 146 604
2643 0.70704 2.38752 -0.268106 88 71 55 0.298624 152 958 99 799 52 596 125 927 126 476
15625 0.375571 3.22003 0.146938 24 14 2 0.298048 46 621 93 1253 33 365 146 603
2642 0.662686 2.40282 -0.210409 49 39 29 0.285732 2 332 99 795 52 591
15624 1.2053 2.28154 0.322498 97 71 41 0.187554 93 751 33 359 146 614
2641 0.662686 2.40282 -0.210409 49 39 29 0.285732 2 331 99 794 52 590
15623 1.34731 2.22897 0.136083 102 78 53 0.687524 9 514 33 350
2640 0.651178 2.40619 -0.197671 50 39 29 0.111359 152 947 99 788 125 899
15622 1.3514 2.22202 0.138783 102 78 53 0.771899 80 686 33 349 57 1416 105 1603 159 1217
2639 0.655509 2.39347 -0.202324 86 70 57 0.141144 152 941 99 787 125 901
15621 0.415694 3.07387 0.137073 64 47 28 0.399328 93 734 33 326 146 575
2638 0.655509 2.39347 -0.202324 86 70 57 0.141144 152 940 99 786 125 900
15620 0.418473 3.09658 0.111953 58 41 24 0.585102 46 617 33 324 93 1239
2637 0.660771 2.38042 -0.215397 49 39 29 0.260127 152 949 99 784 52 588 125 696
15618 1.35928 2.18002 0.0398103 86 30 12 0.171412 93 700 33 305 146 570
2635 0.00693697 2.25598 -0.478164 94 77 61 0.283778 152 811 99 724 126 522 154 533
15617 -0.808725 4.05697 0.28108 51 13 7 0.503849 46 598 33 295 70 309
2634 0.00673223 2.25591 -0.47829 94 77 61 0.270222 152 810 99 723 126 521 100 501 153 497 154 532
15614 -0.39983 3.37734 -0.0229686 64 46 28 0.777968 46 514 33 216 93 615 146 939
2631 -0.0207969 2.24759 -0.465941 26 17 8 0.0898904 152 804 99 716 125 764
15613 0.301178 2.59914 0.220339 79 55 30 0.246266 46 505 33 206 146 526 93 1178
2630 -0.0831326 2.26225 -0.427794 86 66 52 0.345102 152 792 99 703 125 746 126 506 100 541
15612 0.331491 2.57502 0.211603 36 23 7 0.68013 81 1095 118 474 33 204 46 500 92 756 93 609
2629 -0.140103 2.27907 -0.36831 37 15 9 0.124651 152 783 99 697 125 739
15611 0.333078 2.57292 0.212098 36 23 7 0.505139 46 499 81 1096 33 203
2628 -0.150741 2.28053 -0.353498 51 34 26 0.240792 152 782 99 693 52 524 125 736
15610 0.404858 2.53657 0.185522 74 54 31 0.753989 46 494 93 587 33 192 146 519
2627 -0.159271 2.27149 -0.337947 85 65 51 0.531868 152 585 99 690 74 392 153 999
15609 0.404858 2.53657 0.185522 74 54 31 0.753989 46 493 93 588 33 191 146 518
2626 0.687992 2.33131 -0.248717 46 34 22 0.393431 2 334 99 656 52 485 125 1597 74 370 126 471
15608 0.397789 2.51963 0.189345 27 15 3 0.264223 46 492 93 586 33 190 146 502
2625 0.698369 2.29927 -0.255141 94 77 61 0.221007 152 715 99 654 125 531
15607 -0.60737 3.0259 0.0836505 134 95 58 0.70479 93 1647 33 154 146 1198
2624 0.705911 2.28476 -0.268458 46 35 21 0.267241 2 239 99 652 52 487 126 412
15602 0.262361 0.877065 0.0598731 148 109 73 0.809119 9 356 33 15
2619 0.0326751 2.18443 -0.486326 57 43 29 0.225575 151 654 152 618 99 596 125 601
15600 0.972212 2.39441 0.399521 25 12 0 2.06547 103 1780 80 1470 32 2082 69 1034 93 1237 46 613 69 838 105 1863 9 250 81 400 146 595 21 548 8 1518 7 1107 104 1875 57 1980
2617 -0.0657301 2.18275 -0.433678 91 70 54 0.285986 152 456 99 580 125 459 100 436
15599 1.14613 2.53388 0.345847 39 21 1 1.20625 8 1085 80 1257 9 1120 32 1840 20 857 92 2136 31 344 91 623 68 595 44 530 19 283 116 536 68 979 20 1098
2616 -0.0967963 2.1752 -0.407928 33 18 11 0.213102 152 450 99 574 125 455 126 435 100 430
15598 -3.87864 4.03677 -24.0424 46 29 6 1.50433 19 1159 44 1947 144 2104 116 1884 118 1575
2615 -0.122866 2.19604 -0.386718 38 21 13 0.210783 152 449 99 573 52 425
15597 -7.18817 5.61527 -16.6101 58 36 10 1.3539 20 1310 69 1237 117 1559 118 1265 46 1439 93 1799 79 1545 9 1517 81 1451 106 1565 33 1004 146 1502 21 1132 158 1309 70 889
2614 -0.157143 2.18047 -0.344247 40 20 14 0.365766 152 443 99 559 52 418 125 450
15596 0.365118 1.02822 -0.0248898 24 16 5 1.40537 12 1810 32 2319 21 1148
2613 1.05482 2.21881 -0.36549 21 14 6 0.473589 2 194 99 552 52 408 125 1574 152 1835 74 336
15595 14.5493 6.68421 0.516506 103 82 58 1.18845 66 1544 142 2554 29 737 89 1713 64 971 113 1040 88 895 15 655 41 862 27 615 65 1264 16 797 42 1398 114 1524 76 871
2612 1.05291 2.21697 -0.368673 21 14 6 0.845964 2 193 99 551 52 407 125 1573 152 1834 74 335 153 985
15592 14.7508 6.61567 0.444422 23 17 5 1.04604 27 900 40 1590 64 1270 15 771 140 1456 113 1199 88 1156 41 1048 65 1488 16 885 66 1737 142 2763 89 2043 42 1591 114 1678
2609 0.91686 2.18165 -0.363771 66 54 40 0.348276 2 178 99 542 136 1239 163 1641 60 482 108 594 135 634
15591 -0.440787 2.53834 0.0657289 17 7 0 0.957746 9 899 81 674 69 343 118 820 46 365 93 1118 20 706 145 1832 45 1439 117 1314 33 109 146 872 160 1351
2608 0.645879 2.22818 -0.195313 48 38 26 0.23218 152 524 99 518 125 388
15590 -0.394441 2.28955 0.0408276 123 89 55 1.34556 7 837 159 1155 91 559 44 493 116 495 144 1082 145 544
2607 -1.0214 2.09556 -0.23845 82 58 31 1.51368 2 1787 99 509
15589 -0.0399583 0.956898 0.14072 108 76 35 1.21468 29 738 4 1308 28 517
2606 1.10484 2.19441 -0.341343 125 107 90 0.506609 2 192 99 505 52 367 125 1525 152 1816
15588 1.18955 2.20056 0.339618 73 15 0 1.77783 20 795 145 1888 103 1301 78 323 55 420 7 1028 79 768 104 1563 56 1353 159 1557 8 888 105 1831 57 1691 80 1151 9 914 32 1804 106 1325 45 1199 117 1345 92 2108 31 589 91 1291 68 496 130 867 81 1037
2605 1.18273 1.99858 -0.266092 42 30 16 1.64082 2 1772 99 479
15587 -0.179863 2.19371 -0.0671503 49 30 8 0.876203 30 796 90 1902 115 1756
2604 0.310985 2.33203 -0.495278 71 57 45 0.240186 98 879 61 892 124 2157 73 746 151 2128 51 968 152 1161 163 1703 125 1756 108 649
15586 -0.709261 2.74451 0.0871829 129 91 57 1.59393 30 862 143 1817 17 745 66 1080 32 1342 20 734 92 1591 45 1146 69 362 8 994 80 1226 31 1032 91 1774 44 1410 19 614 144 1492 18 662 145 1863 117 1050 68 933
2603 0.310985 2.33203 -0.495278 71 57 45 0.240186 98 880 61 891 124 2158 73 747 151 2129 51 969 152 1160 163 1704 125 1757 108 648
2599 -0.0302284 2.24756 -0.458977 46 33 24 0.932599 98 593 51 738 152 1907 2 386 61 468 73 410 125 1625 74 407 100 491 3 211 154 875
15576 -1.02605 2.18268 -0.328334 0 0 0 0.834116 15 196 16 278
2593 0.800874 2.31909 -0.33662 46 36 26 0.285127 1 280 2 344 98 2397 61 1828 124 2167 151 2060 51 1617 73 658 12 377 152 1866 99 1991 52 498 109 1621 125 1601 74 378 126 413 100 462 153 998
15575 0.125185 3.05038 0.201614 56 39 20 0.429296 30 308 91 1492 90 697 19 391 67 527 20 479 32 937 92 1050 45 816
2592 0.367251 2.24411 -0.258439 100 83 68 0.358909 51 2595 152 3013
15574 -0.635819 2.60812 0.103047 109 76 42 1.66861 90 1706 43 1483 18 558 6 1285 7 1540 77 1031 78 1612 79 1413 8 1308 105 2026 57 1728 80 1197 91 2014 44 1587 19 771 67 1065 116 1544 145 2048 68 1224 32 1776 20 1045 92 2077 45 1443 117 1513 69 759
2591 -0.115606 2.02846 -0.270615 3 2 0 0.537292 2 2927 152 2983
15573 0.659044 2.23606 0.248533 79 55 28 1.14482 31 1105 91 1990 44 1567 19 743 116 1523 68 916 20 252 92 685 145 1853 117 1329
2590 -0.550972 2.23415 -0.628161 109 93 78 0.336325 151 3044 152 2938
15571 1.146 2.23701 0.362572 88 13 0 0.78888 31 593 91 543 44 461 116 982 19 525 8 890 105 1848 57 1695 80 731 159 1422 32 1435 106 1346 9 936 81 689 20 799 92 2109 145 1892 45 1203 117 1104 68 499 69 822 93 1234
2588 -0.133075 2.18883 -0.36496 60 32 26 0.869295 2 2803 152 2868 99 3078 125 2638
15570 0.0397553 2.33262 0.240762 134 96 57 0.440526 31 988 30 534 91 1359 44 1066 19 567 90 1200 43 1030 115 1233 66 301 68 477 145 1413 117 1024
2587 -0.153122 2.30857 -0.348584 82 64 54 1.70383 2 2744 152 2809 153 2005
15569 1.20943 2.21499 0.328571 122 87 51 0.781254 9 932 81 1032 93 1230 32 1430 20 371 92 1652 145 1529 45 694 117 555 69 510 46 979 33 603 146 993 21 306 47 313 106 1342 34 123 94 321
2586 -0.122567 2.26753 -0.383243 63 27 25 0.618112 2 2745 152 2807 99 3043 52 2645 125 2587 74 1693 153 2077 26 1489 138 1724
15568 0.115374 2.28335 0.261507 95 21 0 1.22872 9 158 81 318 32 432 20 229 92 1561 145 1410 45 561 117 1023 68 472 54 450 129 1112 6 706 78 379 55 1159 79 798 31 641 30 164 91 1325 44 1060 144 1062 30 526 80 344 67 382 90 519 90 1172 106 805 102 600 103 1756 7 1072 104 1616 105 1595 131 1285 8 550 57 1080 160 833 58 849 56 1416 130 1242 132 1161 159 1183 59 662 59 755 5 284 10 497
2585 0.334453 2.1145 -0.345099 48 32 16 1.76278 1 1535 151 2846 152 2716
15566 -0.614597 2.97921 0.0850726 108 77 47 0.628505 8 1195 32 634 91 1483 19 638 92 1646 20 314 145 1524 45 636 117 1099 68 580 9 618 81 807
2583 0.699269 2.36076 -0.234256 89 76 60 0.723813 2 2423 152 2582 125 2370
2582 0.689862 2.35339 -0.254175 89 76 60 1.43901 2 2422 152 2581 125 2369 26 1012 138 1262 86 1576
15563 1.12319 2.26778 0.372393 15 8 0 0.967412 103 1307 78 346 55 459 130 1235 7 1325 79 1123 104 1840 157 1324 8 1295 105 2007 57 1891 80 1457 159 1567 32 1815 20 1080 92 2115 145 2066 45 1476 117 1354 68 945 69 835 31 634 91 562
2580 -0.170563 2.23436 -0.32475 86 65 56 1.05796 2 2665 152 2574 99 2901 52 2524 125 2366 153 1919
15562 -0.36911 2.27626 0.0196357 80 14 0 1.0195 7 216 104 1156 130 482 157 644 56 1047 8 468 105 1561 57 1036 80 292 9 108 159 842 32 328 131 922 81 262 106 755 20 149 19 225 92 1515 145 1320 45 491 117 383 69 315 46 336 93 485 31 205 91 537 146 857 21 94 58 789 132 1118 160 1126
2579 0.399259 2.34864 -0.457618 120 101 86 0.381519 151 2766 152 2466
15561 0.225107 2.24167 0.266288 84 2 0 0.804878 8 503 159 1178 32 1330 131 1250 20 723 92 1556 145 1845 45 1133 117 1012 68 464 69 370 118 848 46 432 93 1148 31 605 91 1318 44 481 19 539 116 504 33 117 146 899 21 155
2578 1.0592 2.36732 -0.369539 109 95 80 0.714268 124 2762 152 2310 99 2015 52 627 125 1978 25 671 37 604 62 394 123 554 137 935
15560 1.12347 2.48708 0.361841 108 79 45 0.836588 8 1338 9 1394 32 1838 81 1351 20 460 45 800 7 1345 79 1166 31 676 91 1372 44 499 19 284 116 535 68 567
2577 1.09281 2.21251 -0.346268 18 13 1 0.269761 2 1783 152 2294 125 1523
15559 -0.661597 2.69641 0.0992436 110 80 46 1.35238 8 1645 80 1736 32 2451 20 1579 92 2808 145 2500 45 2049 117 1952 69 1413 30 1289 31 1447 91 2511 19 1228 144 2149 67 1629 90 2424 68 1757
2576 -0.652999 2.27465 -0.658914 100 87 71 0.361326 2 779 151 1985 152 2105 52 908
15558 1.12985 2.55373 0.350905 109 81 48 1.1776 8 1442 80 1483 9 1548 92 2366 20 1275 68 1233 31 1120 91 1759 44 1381 19 761 116 1335
2575 -0.788054 2.28148 -0.62988 93 78 59 0.687698 73 525 152 2091 52 1767 74 648
2574 -0.796755 2.27452 -0.621772 34 25 12 0.356826 2 742 152 2089 99 2173 52 884 74 645 100 857
15556 -0.403099 2.72745 0.0331951 64 46 28 0.479081 8 1332 80 1246 9 964 81 1077 20 742 92 2082 145 1858 45 1140 69 775 118 834 46 893 93 1459 32 1365 117 1046 146 1180 21 119
2573 -0.839094 2.28761 -0.601471 89 73 50 0.726933 2 941 152 2086 99 1292 3 581
15555 1.17604 2.50917 0.337393 43 24 0 1.84981 80 1233 32 1839 31 675 91 1371 19 262 116 534 68 968 8 1336
2572 -0.913901 2.31555 -0.540518 87 70 50 0.784288 2 1950 152 2084 99 2227 51 878 74 1067 100 1942 3 1441 101 715
15554 -0.428808 2.73096 0.0477153 60 42 23 0.337141 8 1036 79 1258 80 880 145 1861 31 752 91 1413 20 746 92 1589 45 1156 117 1333
2571 -0.929983 2.29724 -0.524771 84 66 42 0.647113 2 1889 152 2078 99 2155 52 1814 74 1065 100 1941 3 1094 27 250 101 648
15553 -0.389044 2.23733 0.0422431 94 21 1 0.409967 8 154 57 518 159 820 131 902 92 581 9 107 106 752 58 405 158 712 7 213 132 795
2570 0.866408 2.43469 -0.369501 92 77 64 0.48059 98 1174 152 2068 99 987 2 492 52 800 125 1770
15552 0.286599 2.27366 0.244194 88 6 0 0.935416 159 1211 32 423 131 1278 20 258 92 1574 145 1401 45 554 69 401 117 1007 68 461 132 1156 107 1046 59 652 105 1586 31 602 91 1314 10 389 106 800 81 309 157 1064 33 139 46 427 93 1145 118 863 146 910 19 233 44 478 116 501
2569 0.34962 2.37212 -0.481699 76 64 51 0.22345 51 1689 152 2055 11 356 60 1078 134 552
15551 -0.358691 2.11084 0.0294085 112 85 53 0.991896 79 288 157 1289 56 1332 159 798 31 954 91 1726 145 1822 68 383 32 1273 106 1069 69 306 46 850 158 912 160 1304
2568 -0.0905505 2.35407 -0.416214 50 40 28 0.711335 2 602 152 2040 99 2128 52 729 74 523 126 673 100 610 3 239
2567 -0.50697 2.27059 -0.63632 110 94 78 0.803503 1 247 152 2024 151 1998 99 2124 52 914 84 242 73 1549 126 798 108 1315
15549 -0.330694 2.23149 -0.013919 62 16 0 0.745267 7 153 56 996 117 376 8 458 105 1115 57 1008 104 583 80 257 159 815 32 313 131 896 20 142 92 562 145 526 45 475 69 313 158 702
2566 -0.546474 2.24948 -0.644402 108 92 77 0.314419 151 1993 152 2020 109 634 163 397 164 993
15548 -0.355877 2.24855 0.0161483 97 65 37 1.12422 8 466 56 508 105 1117 57 517 9 105 159 416 131 509 106 395 20 146 92 576 45 490 118 305 46 335 93 484 91 536 19 224 146 856 58 414 132 806 160 1124
2565 -0.801829 2.24425 -0.615138 90 73 55 0.432499 2 735 152 1962 99 2167 52 1759 74 635 100 1544 3 1018 75 377 53 724 127 416 101 570
15547 0.0657459 2.56705 0.229702 75 53 27 0.60778 79 1406 8 1317 80 1217 32 1385 20 296 92 1639 145 1513 117 1092 44 1106 144 1134 68 543
2564 -0.835592 2.23359 -0.599108 70 57 40 0.418493 2 1898 152 1957 52 1757 3 1012
15546 -0.341369 2.24427 -0.00254605 82 55 29 1.02759 7 211 104 585 8 152 157 571 56 997 159 817 32 324 131 898 106 394 45 477 31 201 91 535 20 145 92 1514 145 528 58 788 132 1117
2563 -0.81906 2.20967 -0.609414 26 18 8 0.443443 2 1852 152 1956 99 2068 52 1691 125 1672 74 461 100 1446 3 937 153 1124
15545 1.12189 2.44454 0.364866 108 80 47 1.03041 7 1341 79 1402 31 674 91 1370 44 498 19 263 116 533 8 1435 80 1468 32 1836 20 825 92 1698 45 1245 68 566
2562 -0.853667 2.27037 -0.587609 90 74 51 0.525861 2 1896 152 1955 99 2162 52 1756 74 1049 100 1540 3 1015 101 649
15544 0.241312 2.48311 0.247305 91 66 36 0.470137 6 1027 7 1352 79 1158 31 687 145 1496 69 417 105 1867 57 1722 80 1190 106 1349 81 1043
2561 -0.846342 2.24361 -0.595992 88 71 51 0.409133 2 1893 152 1953 99 2481 52 1753 74 1047 100 1928 3 1432 75 367 27 231 127 749 101 568
15543 0.378877 2.24733 0.201504 119 83 48 1.10358 7 1032 79 1109 104 1830 56 1633 105 1816 57 1682 8 1271 80 1141 159 1545 32 1779 131 1434 8 852 106 1303 20 714 92 2067 145 2040 20 1038 45 1445 117 1319 69 781 31 596 91 1730 67 366 68 445 68 904 58 1322 132 1445 160 1332 59 739 107 1133 10 569 130 1199 9 880 81 994 157 1496 33 537 93 1158 118 1070 19 217 116 488 70 522
2560 -0.847509 2.21283 -0.591022 25 18 8 0.367064 2 1850 152 1950 51 443 99 2064 52 1689 125 1670 74 459 100 1445 3 934 153 1122 53 427 27 230 75 295 127 682 101 560
15542 -0.457511 2.73342 0.0626266 57 41 22 0.436565 7 951 79 961 8 665 80 441 32 486 145 1445 117 493 31 790 91 779 19 335 92 698 45 581
2559 -0.884268 2.23975 -0.563298 44 32 18 0.507559 2 719 152 1948 99 2066 52 862 74 610 100 1528 3 1004 75 363 127 738
15541 -0.47595 2.25304 0.0975787 83 9 0 1.22451 56 1347 8 846 57 1367 80 675 159 1138 131 1225 7 1052 32 1291 79 751 104 1590 130 1227 157 1322 20 687 92 1518 145 1331 45 1100 117 962 68 417 69 317 9 117 31 971 91 1734 44 1077 19 556 116 1028 33 92 160 1128 81 266 106 758
2558 -0.892455 2.22581 -0.561023 89 72 48 0.475622 51 598 152 1945 125 1663 53 716 75 361 127 735 101 549
2557 -0.893233 2.22664 -0.559535 89 72 48 1.19955 2 1848 152 1944 99 2056 52 1686 125 1662 74 607 100 1523 3 467 153 1115 27 229 53 423 53 715 75 360 127 734 101 548
15539 0.431626 2.22472 0.161817 80 15 0 1.11057 7 769 79 737 104 1566 130 873 8 851 157 1296 56 1340 57 1372 80 661 159 1396 32 1323 131 1241 20 713 92 1547 145 1830 45 1127 117 994 68 443 69 778 31 579 91 529 58 1310 132 1326 160 1329
2556 -0.905931 2.25251 -0.545866 86 70 47 0.598257 2 1888 152 1940 99 2057 52 1745 100 1519 3 1006 75 358 101 554
15538 0.282386 2.23712 0.251849 97 13 3 1.22961 7 1317 78 799 104 1995 130 1392 8 854 157 1612 56 1798 105 1994 57 1672 32 1781 131 1551 20 718 92 2072 145 1843 45 1132 117 1323 68 918 19 747 91 1731 44 1038 116 988 58 1468 8 1422 59 799 10 575 107 1182
2555 -0.926355 2.22981 -0.531433 91 71 44 0.671592 2 1845 152 1939 75 630 101 854
15536 -0.699878 2.52178 0.109645 17 10 1 0.755969 7 1176 79 847 8 585 80 379 6 1077 30 273 31 707 78 926 91 667 117 432 57 1136 92 628 105 1267 159 964 116 645 144 602 145 580 58 496 77 769 106 459 160 436
2553 0.906626 2.3216 -0.381164 100 87 71 0.528863 2 352 152 1928
15533 0.950176 2.43209 0.389808 115 83 48 1.19303 6 1428 103 2161 78 1768 55 1852 31 1114 30 955 91 2008 67 1195 8 1322 32 1827 20 1089 145 1904 45 1487 68 1230 69 839 93 758 146 596
2550 -0.0895167 2.3016 -0.424569 89 73 58 0.486989 2 1827 152 1904 99 2030 52 1726 125 1623 74 401
15532 1.01249 2.29749 0.409361 71 9 0 0.722822 6 1423 103 2147 7 1610 78 1580 55 1842 104 2119 8 1515 105 2173 57 2047 80 1594 9 1608 32 2381 81 1547 69 1186 46 1524 93 1889 31 1267 91 2264 44 1727 19 996 116 1670 144 1823 30 948 67 1193 20 1378 92 2654 145 2315 45 1789 146 1581
2549 -0.12187 2.31849 -0.387415 39 11 10 0.39238 2 1826 152 1900 99 2029 98 804 52 1725 125 1619 74 1036 126 1213 153 1492
15531 0.25469 2.50465 0.24104 10 5 0 0.740602 6 1028 103 1988 7 1354 79 1180 8 960 57 1737 80 1189 32 1382 92 759 20 286 145 1497 45 613 117 1087 68 530 31 688 91 1378 19 292 144 517
2548 -0.122808 2.2967 -0.38861 46 18 15 0.424062 2 1825 152 1898 99 2027 52 1665 125 1617 74 398 126 1212
15529 -0.710051 2.28151 0.128918 132 96 59 1.21355 129 1142 6 743 103 1778 7 848 77 343 129 1442 78 402 78 852 103 1970 55 1491 104 1862 6 1257 130 1410 56 1650 31 979 19 577 116 1332 67 808 90 624 18 263 92 1527 145 1352 117 978 68 439 8 491 32 318 132 1129
2546 -0.914878 2.22008 -0.538026 37 28 13 0.441991 2 1846 152 1881 99 2050 52 1684 125 1657 74 1032 100 1917 3 1431 153 1506 53 713 75 629 127 725 101 853
15526 -5.78463 5.00942 -28.022 61 43 19 1.03013 20 1184 45 1506 69 1063 92 2189 117 1371 145 1909 118 1093 7 1302 91 1816 116 1561 44 1424 31 1056 19 829 67 1088 93 1683 46 1261
2543 0.676565 2.33274 -0.2412 50 40 30 0.489006 2 333 152 1858 99 650 52 484 125 1596
15525 1.22141 2.23094 0.320069 87 15 2 0.562232 32 646 69 535 46 608 9 933 81 1033 106 1343 93 1246 33 357 146 990
2542 0.31894 2.2512 -0.486622 53 43 31 0.36375 2 327 151 1928 152 1853 99 769 84 251 109 1539 163 1905 125 1595 108 514 162 1078 134 894
15524 -0.711489 3.03023 0.0703505 23 17 11 0.795994 145 1886 117 1102 91 1498 144 1214 68 586
2541 -0.140553 2.25832 -0.364454 32 13 7 0.307524 2 272 152 1838 99 696 125 575 126 499
15523 0.977529 2.4063 0.404652 22 5 0 0.931446 20 1379 92 2658 145 2318 45 1793 7 1668 78 1767 79 1636 31 1273 91 2268 44 1842 30 1066 19 1092 116 1780 144 1939 67 1324 68 1553
2540 -0.0678529 2.17054 -0.434458 41 29 20 0.914548 98 361 152 1819 99 1980 125 1541 100 432 3 174 153 989
15521 0.438632 2.16906 0.152081 121 88 52 1.46796 45 1437 117 1498 31 1096 44 1024 116 978 68 1205
2538 0.713997 2.48268 -0.282315 49 40 29 0.248319 98 1485 152 1504 99 955 52 788 126 633
15520 -0.653268 3.03482 0.0776563 110 80 49 0.627302 20 790 145 1899 45 1177 117 1358 19 810 144 1516 68 976
2537 0.698893 2.50605 -0.266916 56 48 35 0.300566 2 660 98 1482 152 1497 99 1223 52 1003
15519 -0.567637 2.26944 0.130999 146 102 63 0.657475 20 690 45 1103 117 968 68 426 69 324 118 314 32 1294 92 1522
2536 0.690764 2.49863 -0.252556 86 72 61 0.709997 2 657 152 1496 99 1222 52 783
15518 0.0795693 2.97049 0.198673 49 35 18 0.574387 92 966 45 779 30 288 91 883 19 376 144 657 67 501 90 667 143 712 115 786 68 614
2535 0.164799 2.36697 -0.522754 106 90 77 0.088957 124 1385 152 1410 163 948
15517 0.363369 2.67756 0.193388 97 69 45 0.951313 92 1667 145 1547 45 709 117 646 118 477 32 1445 79 1247 80 1267 9 1026 46 533 93 1193 33 239 146 948
2534 0.132176 2.37079 -0.51838 104 88 75 0.250009 124 1374 152 1400 99 1184
15516 0.410726 2.6069 0.164486 16 11 4 0.753025 31 313 45 651 7 913 79 912 8 645 80 855 9 605 32 655 81 762 145 808 118 471 93 625 33 198 146 516
2533 0.086166 2.35833 -0.512735 49 39 29 0.378372 61 867 152 1394 52 750
15515 -0.703721 2.80499 0.0865085 110 79 48 0.590468 145 656 45 588 8 673 80 445 117 502 68 553 31 1048 144 1187 67 872
2532 -0.0651087 2.40319 -0.439719 88 72 57 0.297768 2 816 152 1359 99 1352 126 823 100 744 3 270
2531 -0.0662726 2.38984 -0.444359 30 21 12 0.440409 2 815 152 1358 99 1153 74 695 51 1098 153 637
15513 -0.674901 2.28211 0.128191 98 67 36 0.691776 20 162 145 1351 45 508 117 977 31 977 91 1746 44 1097 91 1349 19 575 116 1049 144 1124 30 574 67 453 90 1239 143 1245 43 555 18 261 115 1276 68 436
2530 -0.0795013 2.40367 -0.430046 87 71 58 0.389779 2 813 152 1356 99 1151 126 811 100 743 3 271
2529 -0.091114 2.40651 -0.418787 87 73 60 0.317269 2 811 152 1355 99 1149 52 933 74 692 126 810 100 733
15511 0.27595 2.32523 0.245756 123 88 52 0.520887 20 735 145 1854 45 1149 117 1330 68 467 69 402 118 868 31 982 19 537 144 1059 30 138 67 376 90 515 146 483 21 153
2528 -0.140431 2.42965 -0.369321 68 57 46 0.397519 2 803 152 1349 99 1326 52 930 126 805
15510 0.29614 2.70568 0.219722 23 13 2 0.486091 20 387 92 874 145 1580 8 1097 9 1074 32 660 45 718
2527 -0.138608 2.41185 -0.36637 70 58 45 0.734422 2 801 152 1344 99 1144 52 929 126 802
15509 0.325626 2.71526 0.212469 64 46 23 0.617503 92 861 145 1573 45 717 31 390 91 735
2526 -0.143663 2.40175 -0.35627 19 14 8 0.485225 2 600 152 1342 99 1135 52 923
15508 0.31242 2.68081 0.217482 96 70 44 0.877104 20 386 92 1670 145 1572 45 716 6 1065 7 1404 78 1334 8 1341 80 1268 9 1028 32 1447 81 1127 69 472 118 882 46 507 93 1194 33 240 146 937
2525 -0.143663 2.40175 -0.35627 19 14 8 0.485225 2 599 152 1341 99 1136 52 922
15507 -0.688625 3.11202 0.0571556 124 90 57 0.848673 32 1425 92 1680 145 1564 68 606 20 1079 92 2355 45 1196 117 1359
2524 -0.156621 2.41277 -0.343441 63 53 43 0.398189 2 595 152 1340 99 1137 52 927 74 685
15506 -0.411067 3.02913 0.0289876 22 14 5 1.21235 32 629 145 1560 117 682 20 784 92 1678 45 1194 68 578
2523 -0.82244 2.27655 -0.609216 40 31 16 0.530924 2 740 152 1327 99 2171 52 883 74 633 100 1542 3 483
15505 0.452518 2.46607 0.134431 63 43 23 0.644689 20 277 145 1448 92 1595 45 595 8 913 57 1712 80 1179 32 1373 106 1357 9 938 117 508
2522 -0.82244 2.27655 -0.609216 40 31 16 0.530924 2 739 152 1326 99 2172 52 882 74 634 100 1543 3 482
15504 1.76681 3.91502 0.266994 115 96 69 0.908136 18 1058 115 1572 17 842 29 486 89 476 144 1193 90 657 143 640 66 315 142 618
2521 -0.929844 2.31987 -0.524547 86 68 45 0.574616 2 934 152 1320 52 1048 74 746 100 1624 3 579 4 263 101 714
15503 1.76681 3.91502 0.266994 115 96 69 0.908136 18 1057 115 1571 17 841 29 485 89 475 144 1192 90 658 143 641 66 316 142 619
2520 -0.953334 2.30058 -0.496268 86 66 40 0.817654 2 706 152 1313 52 1042 100 1613 101 702
15502 0.273444 2.25635 0.252028 130 88 53 1.02973 8 174 107 931 107 1050 59 618 10 390 105 1133 57 1076 130 908 32 426 31 224 91 567 106 439 117 455 45 552 145 595
2519 -0.953427 2.30082 -0.496298 86 66 40 0.765205 2 707 152 1312 52 1041 100 1612 3 1083 101 701
15501 -0.673191 2.58342 0.105931 95 65 34 0.351095 92 674 145 617 31 754 91 1416 44 1121 116 1076 144 1165 67 489 117 479 68 484
2518 1.08833 2.44158 -0.373395 78 11 5 0.430769 2 507 152 1306 125 1216
15500 0.400981 2.54667 0.178785 81 60 35 0.605529 20 326 145 711 45 604 8 953 9 984 32 1403 81 1063
2517 0.973272 2.44153 -0.383911 66 54 40 0.552394 73 1098 98 1543 152 1304
15499 0.219372 2.58114 0.242996 17 9 1 0.344857 92 778 145 754 31 368 91 691 117 601
2516 0.940828 2.39891 -0.381131 51 42 30 0.463053 98 1185 152 1286 125 999
15498 0.668497 3.95712 0.289881 113 83 46 1.15035 18 734 66 652 29 611 16 427 28 218 29 609 65 474
2515 0.940828 2.39891 -0.381131 51 42 30 0.463053 98 1184 152 1285 125 998
15497 1.71184 3.93288 0.530832 118 95 75 0.647504 28 102 29 495 30 352 90 712 143 1270 43 540 18 503 115 1295 17 452 66 351 142 655 89 487 65 263 16 121 42 892 114 1283
2514 0.876257 2.44496 -0.371411 46 38 27 0.547075 98 1518 152 1275 125 1191
15496 0.785423 3.97835 0.439373 117 88 49 0.57874 28 370 29 590 18 720 17 603 66 625 142 917 89 1299 65 458 16 411
2513 0.83538 2.42634 -0.358104 52 42 30 0.415608 2 485 61 1484 152 1268 125 1180
15495 -0.0339766 2.28383 0.213809 87 12 0 1.58014 29 189 142 624 89 467 5 732 54 928 129 1409 6 995 103 1762 78 822 55 1464 104 1622 130 1247 56 1421 8 195 7 1076 79 805 105 1149 57 1087 80 285 159 896 131 1261 30 170 90 1180 143 1193 43 497 115 1217 59 635 10 406
2512 0.822576 2.44846 -0.353283 43 33 21 0.504727 98 1510 152 1256 125 1176
15494 0.728103 3.96708 0.267177 108 80 44 0.288754 143 835 142 925 18 652 17 609 29 327 89 779
2511 0.740039 2.46937 -0.302368 84 68 53 0.165212 98 1488 152 1239 99 971
15493 -0.0937793 2.596 0.131727 96 67 37 0.298995 29 682 142 2185 30 567 116 1068 90 1652 143 1228 43 1064 115 1567 66 343 89 1166
2510 0.740039 2.46937 -0.302368 84 68 53 0.165212 98 1487 152 1238 99 970
15492 0.055266 2.27049 0.25181 118 82 46 1.05752 32 371 20 231 92 647 117 1022 31 985 91 1326 44 1061 19 543 116 1014 144 1063 18 198 80 278 159 882 131 1258 128 339 155 583 102 1361 5 720 54 911 129 1406 77 301 6 990 103 1758 7 1074 78 818 55 1447 130 1243 56 1372 105 1557 79 799 104 1849 30 165 67 386 90 1173 143 585 43 491 115 709 68 474 132 839 59 630 59 744 145 1411 10 498
2509 0.759484 2.4435 -0.32307 90 74 59 0.208689 51 1245 98 1147 152 1236
15491 -0.709692 2.69518 0.0877238 129 91 59 0.392059 32 450 20 243 92 677 45 567 117 1049 68 515 8 993 80 1225 145 1432
2508 0.721592 2.45864 -0.289491 49 39 27 0.311602 51 1241 152 1231 125 1143
15490 0.066167 2.56584 0.229835 61 42 18 0.731569 32 1386 20 295 92 1638 145 1512 45 626 44 1105 19 590 31 1121 116 1066 30 222 144 1133 90 1216 143 619 115 1251 117 1091 68 542
2507 0.753698 2.42304 -0.313259 87 71 56 0.573726 61 1201 152 1224 125 1145 126 557
15489 0.402506 2.58574 0.175389 71 51 28 0.694886 32 1405 20 331 145 1481 69 433 118 467 7 1146 79 910 8 1008 80 1240 9 991 81 1089 92 745
2506 0.701592 2.47343 -0.269384 87 73 60 0.396806 2 469 98 1132 152 1211 99 953 52 787
15487 0.110924 2.60352 0.237992 58 37 15 0.493649 32 603 20 349 92 788 145 1511 45 675 117 616 6 1069 7 1191 8 1026 91 1405 44 620 116 624 144 554 31 741 30 220 19 326 67 465 90 583
2504 0.68758 2.46354 -0.252 42 34 23 0.534739 2 466 152 1206 99 950 52 778 125 1126
15485 0.408391 2.91508 0.154319 87 64 42 0.551849 32 1491 20 416 92 946 45 760 9 1199 118 544 46 556 93 690 33 284 146 969
2502 0.665288 2.43554 -0.218577 80 66 55 0.478926 151 1289 152 1188 125 916
15484 -0.716647 2.50277 0.103836 120 86 50 0.983493 32 1308 20 711 92 1544 45 1116 69 335 6 1452 77 1019 78 1607 103 2173 105 1861 7 1524 79 1399 8 1293 57 1704 80 1175 159 1428 31 1006 30 602 91 1758 44 1123 19 587 116 1077 144 1154 67 839 90 1269 143 1279 43 1158 18 286 17 322 66 483 29 577 142 962 89 786 145 1837 117 1000 68 488
2501 0.641162 2.45726 -0.191598 83 70 59 0.54407 2 457 152 1180 125 912
15483 0.225178 2.24004 0.266237 91 9 0 0.936192 32 1329 20 724 92 1557 145 1844 45 1134 69 369 118 847 46 431 93 1147 6 169 7 778 55 526 79 741 104 1572 130 910 8 502 157 1313 56 1367 105 1552 57 1376 80 667 9 134 159 1177 131 1249 106 776 31 604 91 1317 44 480 116 503 144 466 117 1011 68 463 58 814 132 1131 160 1142 21 156 33 116 146 900 59 620 103 513 107 1031 19 538 10 493
2500 0.166658 2.32622 -0.518268 110 93 77 0.479546 98 854 152 1154 99 918 109 1026 151 1081 163 862
15482 -0.631254 2.68798 0.0998439 109 76 41 1.23639 19 776 32 1341 20 733 92 2084 145 1862 45 1144 117 1334 68 931 69 360 6 1297 7 1413 77 1041 78 1378 79 1233 79 1422 80 1223 106 1154 9 509 31 1029 30 615 91 1773 44 1407 144 1490 67 853 90 1295 143 1313
2499 0.0235551 2.31469 -0.489301 98 80 66 0.310937 151 1054 152 1142 99 894 52 741 125 1084
2498 -0.0317073 2.30989 -0.460525 50 38 26 0.290904 2 400 152 1132 99 879 52 731 125 1080 100 557 154 578
15480 -0.494882 2.97673 0.0613047 60 41 23 0.568828 8 1367 20 787 92 2104 45 1172 31 865 91 1479 144 697 19 622 145 1520 117 1097
2497 -0.0798629 2.37302 -0.427119 45 35 25 0.400716 2 605 152 1127 99 1148 52 934 74 524 126 674 100 615 3 266
15479 -0.675542 2.60616 0.10642 117 82 47 1.42614 32 1777 20 1047 92 2076 145 2049 45 1444 69 758 118 341 6 1456 7 1541 78 1776 79 1553 31 1126 91 2018 19 774 117 1327 68 1222
2496 -0.0807748 2.35867 -0.434883 88 75 59 0.670437 2 604 152 1126 3 265 100 614
15478 -0.618648 2.88448 0.0884389 100 71 41 1.19507 32 1794 20 1069 45 1467 69 776 118 841 31 1052 91 1784 19 800 144 1500 30 652 67 869 90 1725 143 1422 18 658 17 742 92 2098 145 2060 117 1342
2495 -0.106835 2.35369 -0.40599 43 35 24 0.411118 2 597 152 1123 99 1142 52 728 125 1076 74 522 126 671 100 609 153 556
15477 -0.611462 3.03616 0.0777424 124 89 55 0.658279 32 1800 20 1078 92 2114 145 2062 45 1473 117 1356 69 790 118 856 91 2036 19 809 68 1231
2494 -0.150855 2.3631 -0.345156 33 24 17 0.332967 2 593 152 1119 99 1125 52 725 125 1071
15476 -0.169561 9.6154 -25.2143 31 20 8 0.90512 116 1820 20 1561 92 2771 19 1163 67 1543 117 1859 18 1559 30 1237
2493 -0.706228 2.23282 -0.655987 98 83 67 0.0534378 2 756 152 1072
15474 -0.534953 2.26641 0.119263 130 90 54 0.66744 20 153 92 590 145 1338 45 495 117 967 159 1163 131 1229 106 762 31 624 130 1230 91 1308 44 522 19 252 144 508 68 420 160 801
2491 -0.722868 2.22565 -0.643488 48 38 26 0.257726 51 635 152 1066 52 678 74 652 3 344
2490 -0.748602 2.24941 -0.63896 48 38 26 0.547983 151 823 152 1062 99 1301 52 888 100 860 3 485
2489 -0.748806 2.24937 -0.639468 48 38 26 0.533424 2 748 152 1061 99 1300 52 887 100 861 3 484
2487 -0.818996 2.2555 -0.608086 36 27 12 0.394514 2 736 152 1053 99 1294 52 874 100 1537 3 1023 75 379 127 751 101 576
15468 -0.635305 2.29361 0.128285 92 12 0 1.09132 32 346 92 1524 145 1348 6 1013 77 342 55 1487 7 1093 103 1969 78 850 79 763 104 1859 130 1256 8 488 56 1395 80 311 159 1168 131 1239 31 659 91 1744 44 1094 19 574 116 1045 144 1121 67 450 20 165 45 506 117 974 68 432 118 289
2485 -0.840546 2.25689 -0.598099 38 26 11 0.475597 2 730 152 1051 99 2166 52 878 74 629 100 848 3 477 75 368 127 419 101 266
15467 -0.692943 2.27388 0.123423 97 26 0 0.66944 20 694 92 1526 145 1324 45 1105 117 976 69 328 118 286 46 332 93 1090 44 1096 19 754 116 1331 68 901 146 1149
2484 -0.816544 2.24503 -0.608515 86 71 52 0.838774 2 734 152 1050 99 1293 52 872
15466 -0.709935 2.61348 0.0955673 106 74 39 0.937019 20 712 32 402 92 1568 145 1851 45 1125 117 1328 68 928 6 1463 7 1543 77 1246 79 1416 78 1778 30 980 144 1689 91 2021 19 912 116 1554 67 1068 90 1938 143 2015 18 1113 17 925 66 1338
2483 -0.834793 2.24698 -0.598047 91 74 55 0.390396 2 733 152 1049 100 847 3 474
2482 -0.794421 2.21674 -0.621214 93 78 59 0.345677 2 535 152 1048 52 663 74 464 100 688 3 333 127 362
2481 -0.815726 2.23272 -0.610001 45 35 23 0.319726 2 731 152 1047 99 1063 52 875 74 625 100 1535 153 613
15463 -0.658605 2.8895 0.0901435 97 70 37 0.656097 20 773 92 2100 45 1164 31 1147 91 2028 19 803 145 1879 117 1343 68 958 69 391
2480 -0.830026 2.21119 -0.603845 25 17 6 0.658538 2 534 152 1046 99 1058 52 1690 125 1671 74 460 100 682 153 1123 53 428 127 360 101 508
15462 -0.617076 2.6331 0.0990446 30 19 9 1.45059 20 1247 92 2507 45 1647 69 1012 118 1052 46 875 93 1449 31 1200 20 1046 145 2050 117 1512 21 421 146 1162
2479 -0.864442 2.25898 -0.580419 42 32 19 0.605772 2 728 152 1045 99 1290 52 869 100 842 3 475
15461 14.5669 6.7 0.680726 64 48 25 1.13839 27 614 40 1227 64 772 87 1276 112 1256 112 1257 15 442 75 615 113 869 76 693 88 719 41 690 41 691 113 868 87 1277 64 771 15 441 65 748 142 1143 66 848
2478 -0.879883 2.25982 -0.5695 42 30 19 0.419375 2 725 152 1042 99 1289 52 866 74 620 100 1532 3 468 101 289
2477 -0.900101 2.26104 -0.554405 43 31 16 0.521622 2 717 152 1041 52 861 74 618 3 1010
2476 -0.854195 2.2349 -0.587358 50 38 24 0.483922 2 723 152 1039 99 1057 52 865 100 846 3 473 153 611
2475 -0.907169 2.27447 -0.543426 86 69 46 0.558679 2 1890 152 1037 99 2154 52 1750 74 616 100 1521 3 1098
2474 -0.942927 2.27971 -0.50798 91 71 47 0.679741 2 705 152 1032 99 2146 74 603 3 1089 100 1618 101 643
2473 -0.91946 2.25415 -0.53034 90 72 50 0.709035 2 711 152 1030 99 2054 52 1742 74 602 3 1000
2472 -0.906336 2.22751 -0.549015 87 70 47 0.602921 2 529 152 1029 99 2055 52 655 125 1661 74 606 100 1522 3 1001 153 606 53 422 75 353 127 406 101 547
2471 0.697343 2.40964 -0.256988 84 70 57 0.538812 2 460 152 961 125 930
2470 0.705663 2.37343 -0.272897 47 38 28 0.177852 151 1136 152 952 125 924
2469 0.705663 2.37343 -0.272897 47 38 28 0.177852 151 1135 152 951 125 923
2467 0.309867 2.29366 -0.491552 49 36 27 0.101563 61 890 152 917 125 881
15449 1.02206 1.64098 -0.374079 182 145 101 2.32361 43 308 93 1103
2466 0.291741 2.28177 -0.500259 115 97 83 0.243699 124 1059 151 1092 152 914 109 916 163 871 136 829
2465 0.301776 2.25288 -0.49204 53 41 29 0.406707 61 733 152 909 125 870 99 768 136 694 135 480
15447 -0.476296 2.34642 0.0929525 108 78 48 0.453358 79 814 8 524 105 1230 57 1096 80 305 159 1188 32 361 58 830 9 142 132 1143
2464 0.244148 2.2882 -0.503973 116 98 84 0.377709 2 442 152 900 153 517
15446 1.38856 1.13958 0.367534 75 68 58 0.630411 46 1875 93 2139
2463 0.225467 2.27486 -0.511199 66 52 40 0.0936188 124 1043 152 895 109 896
15445 0.233044 2.33367 0.193601 121 61 29 0.781115 46 1861 118 1699 93 2134
2462 0.267575 2.25427 -0.500196 49 36 25 0.162062 151 947 152 888 125 860
15444 -21.0938 7.37857 -40.6816 43 30 13 1.37375 68 1814 93 2056 146 1795
2461 0.152723 2.25748 -0.516001 59 49 38 0.16738 51 791 152 869 99 756
15443 -7.16899 10.4956 -18.5366 87 70 44 1.15945 46 1779 69 1531 118 1599 93 2037 33 1168 146 1745 21 1272
2460 0.104718 2.27016 -0.510458 104 88 75 0.105946 124 999 152 857 125 814
15442 -3.80221 10.033 -23.8352 69 55 36 1.56208 46 1730 69 1457 118 1468 93 1990
2459 0.141544 2.25634 -0.51889 58 47 35 0.200628 51 782 152 853 125 822 153 460
2457 0.0649109 2.25213 -0.500567 101 85 70 0.142938 151 911 152 834 125 801
